ply
format ascii 1.0
element vertex 790
property float x
property float y
property float z
property uchar red
property uchar green
property uchar blue
end_header
0 0 5.06266661678215 235 255 125
0 0 5.15450849718747 230 255 123
0 0 5.24087683705086 225 255 121
0 0 5.31871199487435 220 255 119
0 0 5.38525662138789 214 255 117
0 0 5.43815334002193 208 255 116
0 0 5.47552825814758 202 255 115
0 0 5.49605735065724 196 255 114
0 0 5.49901336421414 189 255 114
0 0 5.48429158056432 182 255 115
0 0 5.45241352623301 174 255 115
0 0 5.40450849718747 167 255 117
0 0 5.34227355296435 159 255 118
0 0 5.2679133974895 151 255 120
0 0 5.18406227634234 143 255 122
0 0 5.09369065729286 135 255 125
0 0 5 128 255 127
0 0 4.90630934270714 120 255 129
0 0 4.81593772365766 112 255 132
0 0 4.7320866025105 104 255 134
0 0 4.65772644703566 96 255 136
0 0 4.59549150281253 88 255 137
0 0 4.54758647376699 81 255 139
0 0 4.51570841943568 73 255 139
0 0 4.50098663578586 66 255 140
0 0 4.50394264934276 59 255 140
0 0 4.52447174185242 53 255 139
0 0 4.56184665997807 47 255 138
0 0 4.61474337861211 41 255 137
0 0 4.68128800512565 35 255 135
0 0 4.75912316294914 30 255 133
0 0 4.84549150281253 25 255 131
0 0 4.93733338321785 20 255 129
0 0 5.03139525976466 16 255 126
0 0 5.12434494358243 13 255 124
0 0 5.21288964578254 9 255 122
0 0 5.29389262614624 7 255 120
0 0 5.36448431371071 4 255 118
0 0 5.42216396275101 3 255 116
0 0 5.46488824294413 2 255 115
0 0 5.49114362536434 1 255 114
0 0 5.5 1 255 114
0 0 5.49114362536434 1 255 114
0 0 5.46488824294413 2 255 115
0 0 5.42216396275101 3 255 116
0 0 5.36448431371071 4 255 118
0 0 5.29389262614624 7 255 120
0 0 5.21288964578254 9 255 122
0 0 5.12434494358243 13 255 124
0 0 5.03139525976466 16 255 126
0 0 4.93733338321785 20 255 129
0 0 4.84549150281253 25 255 131
0 0 4.75912316294914 30 255 133
0 0 4.68128800512566 35 255 135
0 0 4.61474337861211 41 255 137
0 0 4.56184665997807 47 255 138
0 0 4.52447174185242 53 255 139
0 0 4.50394264934276 59 255 140
0 0 4.50098663578586 66 255 140
0 0 4.51570841943568 73 255 139
0 0 4.54758647376699 81 255 139
0 0 4.59549150281253 88 255 137
0 0 4.65772644703565 96 255 136
0 0 4.7320866025105 104 255 134
0 0 4.81593772365766 112 255 132
0 0 4.90630934270714 120 255 129
1.54508497187474 0 4.75528258147577 128 248 133
1.54203609962383 0.0970166881009493 4.84897323876863 135 248 131
1.53290151537699 0.193650495656673 4.93934485781811 143 248 129
1.51771726916505 0.289520053176536 5.02319597896527 151 248 126
1.49654328627077 0.384247007315641 5.09755613444011 159 248 125
1.46946313073118 0.477457514062631 5.15979107866324 167 248 123
1.43658367554844 0.568783714131206 5.20769610770878 174 248 122
1.39803468091096 0.657865184732666 5.23957416204008 182 248 121
1.35396828208922 0.744350362 5.2542959456899 189 248 121
1.30455838902734 0.827897928449854 5.25133993213301 196 248 121
1.25 0.908178160006701 5.23081083962334 202 248 121
1.19050843204334 0.984874227273137 5.1934359214977 208 248 122
1.12631847119698 1.05768344591076 5.14053920286366 214 248 123
1.05768344591076 1.12631847119698 5.07399457635011 220 248 125
0.984874227273137 1.19050843204334 4.99615941852663 225 248 127
0.908178160006701 1.25 4.90979107866324 230 248 129
0.827897928449853 1.30455838902734 4.81794919825792 235 248 132
0.744350362 1.35396828208922 4.72388732171111 239 248 134
0.657865184732666 1.39803468091096 4.63093763789334 242 248 136
0.568783714131206 1.43658367554844 4.54239293569323 246 248 139
0.477457514062631 1.46946313073118 4.46138995532953 248 248 141
0.384247007315641 1.49654328627077 4.39079826776506 251 248 143
0.289520053176536 1.51771726916505 4.33311861872476 252 248 144
0.193650495656673 1.53290151537699 4.29039433853164 253 248 145
0.0970166881009495 1.54203609962383 4.26413895611142 254 248 146
9.46060436876636E-17 1.54508497187474 4.25528258147577 255 248 146
-0.0970166881009493 1.54203609962383 4.26413895611142 254 248 146
-0.193650495656673 1.53290151537699 4.29039433853164 253 248 145
-0.289520053176536 1.51771726916505 4.33311861872476 252 248 144
-0.384247007315641 1.49654328627077 4.39079826776506 251 248 143
-0.477457514062631 1.46946313073118 4.46138995532953 248 248 141
-0.568783714131205 1.43658367554844 4.54239293569323 246 248 139
-0.657865184732666 1.39803468091096 4.63093763789334 242 248 136
-0.744350362 1.35396828208922 4.72388732171111 239 248 134
-0.827897928449854 1.30455838902734 4.81794919825792 235 248 132
-0.908178160006701 1.25 4.90979107866324 230 248 129
-0.984874227273137 1.19050843204334 4.99615941852663 225 248 127
-1.05768344591076 1.12631847119698 5.07399457635011 220 248 125
-1.12631847119698 1.05768344591076 5.14053920286366 214 248 123
-1.19050843204334 0.984874227273137 5.1934359214977 208 248 122
-1.25 0.908178160006701 5.23081083962334 202 248 121
-1.30455838902734 0.827897928449854 5.25133993213301 196 248 121
-1.35396828208922 0.744350362 5.2542959456899 189 248 121
-1.39803468091096 0.657865184732666 5.23957416204008 182 248 121
-1.43658367554844 0.568783714131206 5.20769610770878 174 248 122
-1.46946313073118 0.477457514062632 5.15979107866324 167 248 123
-1.49654328627077 0.384247007315642 5.09755613444011 159 248 125
-1.51771726916505 0.289520053176536 5.02319597896527 151 248 126
-1.53290151537699 0.193650495656673 4.93934485781811 143 248 129
-1.54203609962383 0.0970166881009496 4.84897323876863 135 248 131
-1.54508497187474 1.89212087375327E-16 4.75528258147577 128 248 133
-1.54203609962383 -0.0970166881009492 4.6615919241829 120 248 136
-1.53290151537699 -0.193650495656673 4.57122030513343 112 248 138
-1.51771726916505 -0.289520053176536 4.48736918398627 104 248 140
-1.49654328627078 -0.384247007315641 4.41300902851142 96 248 142
-1.46946313073118 -0.477457514062631 4.35077408428829 88 248 144
-1.43658367554844 -0.568783714131206 4.30286905524276 81 248 145
-1.39803468091096 -0.657865184732665 4.27099100091145 73 248 146
-1.35396828208922 -0.744350362 4.25626921726163 66 248 146
-1.30455838902734 -0.827897928449853 4.25922523081853 59 248 146
-1.25 -0.9081781600067 4.27975432332819 53 248 145
-1.19050843204334 -0.984874227273137 4.31712924145384 47 248 144
-1.12631847119698 -1.05768344591076 4.37002596008787 41 248 143
-1.05768344591076 -1.12631847119698 4.43657058660142 35 248 141
-0.984874227273137 -1.19050843204334 4.51440574442491 30 248 139
-0.908178160006701 -1.25 4.60077408428829 25 248 137
-0.827897928449853 -1.30455838902734 4.69261596469362 20 248 135
-0.744350362 -1.35396828208922 4.78667784124042 16 248 132
-0.657865184732665 -1.39803468091096 4.8796275250582 13 248 130
-0.568783714131206 -1.43658367554844 4.9681722272583 9 248 128
-0.477457514062632 -1.46946313073118 5.049175207622 7 248 126
-0.384247007315641 -1.49654328627078 5.11976689518647 4 248 124
-0.289520053176536 -1.51771726916505 5.17744654422678 3 248 122
-0.193650495656673 -1.53290151537699 5.22017082441989 2 248 121
-0.097016688100949 -1.54203609962383 5.24642620684011 1 248 121
-2.83818131062991E-16 -1.54508497187474 5.25528258147577 1 248 120
0.0970166881009484 -1.54203609962383 5.24642620684011 1 248 121
0.193650495656673 -1.53290151537699 5.22017082441989 2 248 121
0.289520053176535 -1.51771726916505 5.17744654422678 3 248 122
0.384247007315641 -1.49654328627077 5.11976689518647 4 248 124
0.477457514062631 -1.46946313073118 5.049175207622 7 248 126
0.568783714131205 -1.43658367554844 4.9681722272583 9 248 128
0.657865184732664 -1.39803468091096 4.8796275250582 13 248 130
0.744350362000001 -1.35396828208922 4.78667784124042 16 248 132
0.827897928449854 -1.30455838902734 4.69261596469361 20 248 135
0.908178160006701 -1.25 4.60077408428829 25 248 137
0.984874227273136 -1.19050843204334 4.51440574442491 30 248 139
1.05768344591076 -1.12631847119698 4.43657058660142 35 248 141
1.12631847119698 -1.05768344591076 4.37002596008787 41 248 143
1.19050843204334 -0.984874227273137 4.31712924145384 47 248 144
1.25 -0.908178160006701 4.27975432332819 53 248 145
1.30455838902734 -0.827897928449854 4.25922523081853 59 248 146
1.35396828208922 -0.744350362000001 4.25626921726163 66 248 146
1.39803468091096 -0.657865184732666 4.27099100091145 73 248 146
1.43658367554844 -0.568783714131206 4.30286905524276 81 248 145
1.46946313073118 -0.477457514062632 4.35077408428829 88 248 144
1.49654328627077 -0.384247007315642 4.41300902851142 96 248 142
1.51771726916505 -0.289520053176536 4.48736918398627 104 248 140
1.53290151537699 -0.193650495656673 4.57122030513343 112 248 138
1.54203609962383 -0.0970166881009491 4.6615919241829 120 248 136
2.93892626146236 0 4.04508497187474 128 230 151
2.93312696181922 0.184536706815565 4.1387756291676 135 230 149
2.91575195007601 0.36834513155613 4.22914724821708 143 230 147
2.88686979746621 0.550699866343327 4.31299836936424 151 230 145
2.84659448865117 0.730881240348904 4.38735852483908 159 230 143
2.79508497187474 0.908178160006701 4.44959346906221 167 230 141
2.73254453166718 1.08189091537409 4.49749849810775 174 230 140
2.65921998657397 1.25133394156743 4.52937655243905 182 230 139
2.57540071507581 1.41583852437351 4.54409833608887 189 230 139
2.48141751354391 1.57475543935898 4.54114232253198 196 230 139
2.37764129073788 1.72745751406263 4.52061323002231 202 230 139
2.26448160399829 1.87334210315854 4.48323831189667 208 230 140
2.14238504291096 2.01183346682188 4.43034159326263 214 230 142
2.01183346682188 2.14238504291096 4.36379696674908 220 230 143
1.87334210315854 2.26448160399829 4.2859618089256 225 230 145
1.72745751406263 2.37764129073788 4.19959346906221 230 230 147
1.57475543935898 2.48141751354391 4.10775158865689 235 230 150
1.41583852437351 2.57540071507581 4.01368971211008 239 230 152
1.25133394156743 2.65921998657397 3.92074002829231 242 230 155
1.08189091537409 2.73254453166717 3.8321953260922 246 230 157
0.908178160006701 2.79508497187474 3.7511923457285 248 230 159
0.730881240348904 2.84659448865117 3.68060065816403 251 230 161
0.550699866343327 2.88686979746621 3.62292100912373 252 230 162
0.368345131556131 2.91575195007601 3.58019672893061 253 230 163
0.184536706815565 2.93312696181922 3.55394134651039 254 230 164
1.79951388660113E-16 2.93892626146237 3.54508497187474 255 230 164
-0.184536706815565 2.93312696181922 3.55394134651039 254 230 164
-0.36834513155613 2.91575195007601 3.58019672893061 253 230 163
-0.550699866343327 2.88686979746621 3.62292100912373 252 230 162
-0.730881240348904 2.84659448865117 3.68060065816403 251 230 161
-0.9081781600067 2.79508497187474 3.7511923457285 248 230 159
-1.08189091537409 2.73254453166718 3.8321953260922 246 230 157
-1.25133394156743 2.65921998657397 3.92074002829231 242 230 155
-1.41583852437351 2.57540071507581 4.01368971211008 239 230 152
-1.57475543935898 2.48141751354391 4.10775158865689 235 230 150
-1.72745751406263 2.37764129073788 4.19959346906221 230 230 147
-1.87334210315854 2.26448160399829 4.2859618089256 225 230 145
-2.01183346682188 2.14238504291096 4.36379696674908 220 230 143
-2.14238504291096 2.01183346682188 4.43034159326263 214 230 142
-2.26448160399829 1.87334210315854 4.48323831189667 208 230 140
-2.37764129073788 1.72745751406263 4.52061323002231 202 230 139
-2.48141751354391 1.57475543935899 4.54114232253198 196 230 139
-2.57540071507581 1.41583852437351 4.54409833608887 189 230 139
-2.65921998657397 1.25133394156743 4.52937655243905 182 230 139
-2.73254453166717 1.08189091537409 4.49749849810775 174 230 140
-2.79508497187474 0.908178160006701 4.44959346906221 167 230 141
-2.84659448865117 0.730881240348906 4.38735852483908 159 230 143
-2.88686979746621 0.550699866343327 4.31299836936424 151 230 145
-2.91575195007601 0.368345131556131 4.22914724821708 143 230 147
-2.93312696181922 0.184536706815565 4.1387756291676 135 230 149
-2.93892626146237 3.59902777320226E-16 4.04508497187474 128 230 151
-2.93312696181922 -0.184536706815565 3.95139431458187 120 230 154
-2.91575195007601 -0.36834513155613 3.8610226955324 112 230 156
-2.88686979746621 -0.550699866343328 3.77717157438524 104 230 158
-2.84659448865117 -0.730881240348904 3.70281141891039 96 230 160
-2.79508497187474 -0.908178160006701 3.64057647468726 88 230 162
-2.73254453166718 -1.08189091537409 3.59267144564173 81 230 163
-2.65921998657397 -1.25133394156743 3.56079339131042 73 230 164
-2.57540071507581 -1.41583852437351 3.5460716076606 66 230 164
-2.48141751354391 -1.57475543935898 3.5490276212175 59 230 164
-2.37764129073788 -1.72745751406263 3.56955671372716 53 230 163
-2.26448160399829 -1.87334210315854 3.60693163185281 47 230 163
-2.14238504291096 -2.01183346682188 3.65982835048684 41 230 161
-2.01183346682188 -2.14238504291096 3.72637297700039 35 230 159
-1.87334210315854 -2.26448160399829 3.80420813482388 30 230 157
-1.72745751406263 -2.37764129073788 3.89057647468726 25 230 155
-1.57475543935898 -2.48141751354391 3.98241835509259 20 230 153
-1.41583852437351 -2.57540071507581 4.07648023163939 16 230 151
-1.25133394156743 -2.65921998657397 4.16942991545717 13 230 148
-1.08189091537409 -2.73254453166718 4.25797461765727 9 230 146
-0.908178160006702 -2.79508497187474 4.33897759802097 7 230 144
-0.730881240348903 -2.84659448865117 4.40956928558544 4 230 142
-0.550699866343327 -2.88686979746621 4.46724893462575 3 230 141
-0.368345131556131 -2.91575195007601 4.50997321481886 2 230 139
-0.184536706815564 -2.93312696181922 4.53622859723908 1 230 139
-5.39854165980339E-16 -2.93892626146237 4.54508497187474 1 230 139
0.184536706815563 -2.93312696181922 4.53622859723908 1 230 139
0.36834513155613 -2.91575195007601 4.50997321481886 2 230 139
0.550699866343326 -2.88686979746621 4.46724893462575 3 230 141
0.730881240348905 -2.84659448865117 4.40956928558544 4 230 142
0.908178160006701 -2.79508497187474 4.33897759802097 7 230 144
1.08189091537408 -2.73254453166718 4.25797461765727 9 230 146
1.25133394156743 -2.65921998657397 4.16942991545717 13 230 148
1.41583852437351 -2.57540071507581 4.07648023163939 16 230 151
1.57475543935898 -2.48141751354391 3.98241835509258 20 230 153
1.72745751406263 -2.37764129073788 3.89057647468726 25 230 155
1.87334210315854 -2.2644816039983 3.80420813482388 30 230 157
2.01183346682188 -2.14238504291096 3.72637297700039 35 230 159
2.14238504291096 -2.01183346682188 3.65982835048684 41 230 161
2.26448160399829 -1.87334210315854 3.60693163185281 47 230 163
2.37764129073788 -1.72745751406263 3.56955671372716 53 230 163
2.48141751354391 -1.57475543935899 3.5490276212175 59 230 164
2.57540071507581 -1.41583852437352 3.5460716076606 66 230 164
2.65921998657397 -1.25133394156743 3.56079339131042 73 230 164
2.73254453166718 -1.08189091537409 3.59267144564173 81 230 163
2.79508497187474 -0.908178160006702 3.64057647468726 88 230 162
2.84659448865117 -0.730881240348906 3.70281141891039 96 230 160
2.88686979746621 -0.550699866343327 3.77717157438524 104 230 158
2.91575195007601 -0.368345131556131 3.8610226955324 112 230 156
2.93312696181922 -0.184536706815564 3.95139431458188 120 230 154
4.04508497187473 0 2.93892626146237 128 202 180
4.03710292069451 0.253992986924233 3.03261691875523 135 202 177
4.01318826866319 0.506983579567434 3.12298853780471 143 202 175
3.97343539598677 0.757973339640847 3.20683965895186 151 202 173
3.91800118909235 1.00597172522778 3.28119981442671 159 202 171
3.84710442146907 1.25 3.34343475864984 167 202 169
3.76102489026907 1.4890950958429 3.39133978769538 174 202 168
3.66010231207601 1.72231341364535 3.42321784202668 182 202 167
3.54473498219888 1.94873454725429 3.4379396256765 189 202 167
3.41537820278237 2.16746491589735 3.4349836121196 196 202 167
3.27254248593737 2.37764129073788 3.41445451960994 202 202 167
3.11679153898282 2.57843420164486 3.3770796014843 208 202 168
2.94874003975051 2.76905121073248 3.32418288285026 214 202 170
2.76905121073248 2.94874003975051 3.25763825633671 220 202 171
2.57843420164486 3.11679153898282 3.17980309851322 225 202 173
2.37764129073788 3.27254248593737 3.09343475864984 230 202 176
2.16746491589734 3.41537820278237 3.00159287824452 235 202 178
1.94873454725429 3.54473498219888 2.90753100169771 239 202 180
1.72231341364535 3.66010231207601 2.81458131787994 242 202 183
1.4890950958429 3.76102489026907 2.72603661567983 246 202 185
1.25 3.84710442146907 2.64503363531613 248 202 187
1.00597172522778 3.91800118909235 2.57444194775166 251 202 189
0.757973339640848 3.97343539598677 2.51676229871136 252 202 190
0.506983579567434 4.01318826866319 2.47403801851824 253 202 191
0.253992986924233 4.03710292069451 2.44778263609802 254 202 192
2.47681837915461E-16 4.04508497187474 2.43892626146237 255 202 192
-0.253992986924233 4.03710292069451 2.44778263609802 254 202 192
-0.506983579567433 4.01318826866319 2.47403801851824 253 202 191
-0.757973339640847 3.97343539598677 2.51676229871136 252 202 190
-1.00597172522778 3.91800118909235 2.57444194775166 251 202 189
-1.25 3.84710442146907 2.64503363531613 248 202 187
-1.4890950958429 3.76102489026907 2.72603661567983 246 202 185
-1.72231341364535 3.66010231207601 2.81458131787994 242 202 183
-1.94873454725429 3.54473498219888 2.90753100169771 239 202 180
-2.16746491589735 3.41537820278237 3.00159287824452 235 202 178
-2.37764129073788 3.27254248593737 3.09343475864984 230 202 176
-2.57843420164486 3.11679153898282 3.17980309851322 225 202 173
-2.76905121073248 2.94874003975051 3.25763825633671 220 202 171
-2.94874003975051 2.76905121073248 3.32418288285026 214 202 170
-3.11679153898282 2.57843420164486 3.3770796014843 208 202 168
-3.27254248593737 2.37764129073788 3.41445451960994 202 202 167
-3.41537820278237 2.16746491589735 3.4349836121196 196 202 167
-3.54473498219888 1.94873454725429 3.4379396256765 189 202 167
-3.66010231207601 1.72231341364535 3.42321784202668 182 202 167
-3.76102489026907 1.4890950958429 3.39133978769538 174 202 168
-3.84710442146907 1.25 3.34343475864984 167 202 169
-3.91800118909235 1.00597172522778 3.28119981442671 159 202 171
-3.97343539598677 0.757973339640847 3.20683965895186 151 202 173
-4.01318826866319 0.506983579567435 3.12298853780471 143 202 175
-4.03710292069451 0.253992986924234 3.03261691875523 135 202 177
-4.04508497187474 4.95363675830922E-16 2.93892626146237 128 202 180
-4.03710292069451 -0.253992986924233 2.8452356041695 120 202 182
-4.01318826866319 -0.506983579567434 2.75486398512003 112 202 184
-3.97343539598677 -0.757973339640848 2.67101286397287 104 202 186
-3.91800118909235 -1.00597172522778 2.59665270849802 96 202 188
-3.84710442146907 -1.25 2.53441776427489 88 202 190
-3.76102489026907 -1.4890950958429 2.48651273522936 81 202 191
-3.66010231207601 -1.72231341364535 2.45463468089805 73 202 192
-3.54473498219888 -1.94873454725429 2.43991289724823 66 202 192
-3.41537820278237 -2.16746491589734 2.44286891080513 59 202 192
-3.27254248593737 -2.37764129073788 2.46339800331479 53 202 192
-3.11679153898282 -2.57843420164486 2.50077292144043 47 202 191
-2.94874003975051 -2.76905121073248 2.55366964007447 41 202 189
-2.76905121073248 -2.94874003975051 2.62021426658802 35 202 188
-2.57843420164486 -3.11679153898282 2.69804942441151 30 202 186
-2.37764129073788 -3.27254248593737 2.78441776427489 25 202 183
-2.16746491589734 -3.41537820278237 2.87625964468021 20 202 181
-1.94873454725429 -3.54473498219888 2.97032152122702 16 202 179
-1.72231341364535 -3.66010231207601 3.06327120504479 13 202 176
-1.4890950958429 -3.76102489026907 3.1518159072449 9 202 174
-1.25 -3.84710442146907 3.2328188876086 7 202 172
-1.00597172522778 -3.91800118909235 3.30341057517307 4 202 170
-0.757973339640847 -3.97343539598677 3.36109022421337 3 202 169
-0.506983579567435 -4.01318826866319 3.40381450440649 2 202 168
-0.253992986924232 -4.03710292069451 3.43006988682671 1 202 167
-7.43045513746382E-16 -4.04508497187474 3.43892626146237 1 202 167
0.253992986924231 -4.03710292069451 3.43006988682671 1 202 167
0.506983579567433 -4.01318826866319 3.40381450440649 2 202 168
0.757973339640846 -3.97343539598677 3.36109022421337 3 202 169
1.00597172522778 -3.91800118909235 3.30341057517307 4 202 170
1.25 -3.84710442146907 3.2328188876086 7 202 172
1.4890950958429 -3.76102489026907 3.1518159072449 9 202 174
1.72231341364534 -3.66010231207601 3.06327120504479 13 202 176
1.94873454725429 -3.54473498219888 2.97032152122702 16 202 179
2.16746491589735 -3.41537820278237 2.87625964468021 20 202 181
2.37764129073788 -3.27254248593737 2.78441776427489 25 202 183
2.57843420164486 -3.11679153898282 2.69804942441151 30 202 186
2.76905121073248 -2.94874003975051 2.62021426658802 35 202 188
2.94874003975051 -2.76905121073248 2.55366964007447 41 202 189
3.11679153898282 -2.57843420164486 2.50077292144043 47 202 191
3.27254248593737 -2.37764129073788 2.46339800331479 53 202 192
3.41537820278237 -2.16746491589735 2.44286891080513 59 202 192
3.54473498219887 -1.94873454725429 2.43991289724823 66 202 192
3.66010231207601 -1.72231341364535 2.45463468089805 73 202 192
3.76102489026907 -1.4890950958429 2.48651273522936 81 202 191
3.84710442146907 -1.25 2.53441776427489 88 202 190
3.91800118909235 -1.00597172522778 2.59665270849802 96 202 188
3.97343539598677 -0.757973339640847 2.67101286397287 104 202 186
4.01318826866319 -0.506983579567435 2.75486398512003 112 202 184
4.03710292069451 -0.253992986924232 2.8452356041695 120 202 182
4.75528258147577 0 1.54508497187474 128 167 215
4.74589911754221 0.298586663799558 1.6387756291676 135 167 213
4.71778575798677 0.59599494244837 1.72914724821708 143 167 210
4.67105345339585 0.891051101343527 1.81299836936424 151 167 208
4.60588663482572 1.18259068862421 1.88735852483908 159 167 206
4.52254248593737 1.46946313073118 1.94959346906221 167 167 205
4.42134992801015 1.75053627319501 1.99749849810775 174 167 204
4.30270832183972 2.02470084873248 2.02937655243905 182 167 203
4.16708589164344 2.29087485501784 2.04409833608887 189 167 202
4.0150178771933 2.54800782485161 2.04114232253198 196 167 202
3.84710442146907 2.79508497187474 2.02061323002231 202 167 203
3.66400820216812 3.03113119546673 1.98323831189667 208 167 204
3.46645181641934 3.25521492902234 1.93034159326263 214 167 205
3.25521492902234 3.46645181641934 1.86379696674908 220 167 207
3.03113119546673 3.66400820216812 1.78596180892559 225 167 209
2.79508497187474 3.84710442146907 1.69959346906221 230 167 211
2.54800782485161 4.0150178771933 1.60775158865689 235 167 214
2.29087485501784 4.16708589164344 1.51368971211008 239 167 216
2.02470084873248 4.30270832183972 1.42074002829231 242 167 218
1.75053627319501 4.42134992801015 1.3321953260922 246 167 221
1.46946313073118 4.52254248593737 1.2511923457285 248 167 223
1.18259068862421 4.60588663482572 1.18060065816403 251 167 224
0.891051101343528 4.67105345339585 1.12292100912373 252 167 226
0.595994942448371 4.71778575798677 1.08019672893061 253 167 227
0.298586663799559 4.74589911754221 1.05394134651039 254 167 228
2.91167463174805E-16 4.75528258147577 1.04508497187474 255 167 228
-0.298586663799558 4.74589911754221 1.05394134651039 254 167 228
-0.595994942448369 4.71778575798677 1.08019672893061 253 167 227
-0.891051101343527 4.67105345339585 1.12292100912373 252 167 226
-1.18259068862421 4.60588663482572 1.18060065816403 251 167 224
-1.46946313073118 4.52254248593737 1.2511923457285 248 167 223
-1.75053627319501 4.42134992801015 1.3321953260922 246 167 221
-2.02470084873248 4.30270832183972 1.42074002829231 242 167 218
-2.29087485501784 4.16708589164344 1.51368971211008 239 167 216
-2.54800782485161 4.0150178771933 1.60775158865689 235 167 214
-2.79508497187474 3.84710442146907 1.69959346906221 230 167 211
-3.03113119546673 3.66400820216812 1.7859618089256 225 167 209
-3.25521492902234 3.46645181641934 1.86379696674908 220 167 207
-3.46645181641934 3.25521492902234 1.93034159326263 214 167 205
-3.66400820216812 3.03113119546673 1.98323831189667 208 167 204
-3.84710442146907 2.79508497187474 2.02061323002231 202 167 203
-4.0150178771933 2.54800782485161 2.04114232253198 196 167 202
-4.16708589164344 2.29087485501784 2.04409833608887 189 167 202
-4.30270832183972 2.02470084873248 2.02937655243905 182 167 203
-4.42134992801015 1.75053627319501 1.99749849810775 174 167 204
-4.52254248593737 1.46946313073118 1.94959346906221 167 167 205
-4.60588663482572 1.18259068862421 1.88735852483908 159 167 206
-4.67105345339585 0.891051101343527 1.81299836936424 151 167 208
-4.71778575798677 0.595994942448371 1.72914724821708 143 167 210
-4.74589911754221 0.298586663799559 1.6387756291676 135 167 213
-4.75528258147577 5.8233492634961E-16 1.54508497187474 128 167 215
-4.74589911754221 -0.298586663799558 1.45139431458187 120 167 217
-4.71778575798677 -0.59599494244837 1.3610226955324 112 167 220
-4.67105345339585 -0.891051101343528 1.27717157438524 104 167 222
-4.60588663482572 -1.18259068862421 1.20281141891039 96 167 224
-4.52254248593737 -1.46946313073118 1.14057647468726 88 167 225
-4.42134992801015 -1.75053627319501 1.09267144564173 81 167 227
-4.30270832183972 -2.02470084873248 1.06079339131042 73 167 227
-4.16708589164344 -2.29087485501784 1.0460716076606 66 167 228
-4.0150178771933 -2.54800782485161 1.0490276212175 59 167 228
-3.84710442146907 -2.79508497187473 1.06955671372716 53 167 227
-3.66400820216812 -3.03113119546673 1.10693163185281 47 167 226
-3.46645181641934 -3.25521492902234 1.15982835048684 41 167 225
-3.25521492902234 -3.46645181641934 1.22637297700039 35 167 223
-3.03113119546673 -3.66400820216812 1.30420813482388 30 167 221
-2.79508497187474 -3.84710442146907 1.39057647468726 25 167 219
-2.54800782485161 -4.0150178771933 1.48241835509259 20 167 217
-2.29087485501784 -4.16708589164344 1.57648023163939 16 167 214
-2.02470084873248 -4.30270832183972 1.66942991545717 13 167 212
-1.75053627319501 -4.42134992801015 1.75797461765727 9 167 210
-1.46946313073118 -4.52254248593737 1.83897759802097 7 167 208
-1.18259068862421 -4.60588663482572 1.90956928558544 4 167 206
-0.891051101343527 -4.67105345339585 1.96724893462574 3 167 204
-0.595994942448372 -4.71778575798677 2.00997321481886 2 167 203
-0.298586663799557 -4.74589911754221 2.03622859723908 1 167 203
-8.73502389524415E-16 -4.75528258147577 2.04508497187474 1 167 202
0.298586663799555 -4.74589911754221 2.03622859723908 1 167 203
0.59599494244837 -4.71778575798677 2.00997321481886 2 167 203
0.891051101343526 -4.67105345339585 1.96724893462575 3 167 204
1.18259068862421 -4.60588663482572 1.90956928558544 4 167 206
1.46946313073118 -4.52254248593737 1.83897759802097 7 167 208
1.750536273195 -4.42134992801015 1.75797461765727 9 167 210
2.02470084873248 -4.30270832183972 1.66942991545717 13 167 212
2.29087485501784 -4.16708589164344 1.57648023163939 16 167 214
2.54800782485161 -4.0150178771933 1.48241835509258 20 167 217
2.79508497187474 -3.84710442146907 1.39057647468726 25 167 219
3.03113119546673 -3.66400820216812 1.30420813482388 30 167 221
3.25521492902234 -3.46645181641934 1.22637297700039 35 167 223
3.46645181641933 -3.25521492902234 1.15982835048684 41 167 225
3.66400820216812 -3.03113119546673 1.10693163185281 47 167 226
3.84710442146907 -2.79508497187474 1.06955671372716 53 167 227
4.0150178771933 -2.54800782485161 1.0490276212175 59 167 228
4.16708589164344 -2.29087485501784 1.0460716076606 66 167 228
4.30270832183972 -2.02470084873248 1.06079339131042 73 167 227
4.42134992801015 -1.75053627319501 1.09267144564173 81 167 227
4.52254248593737 -1.46946313073118 1.14057647468726 88 167 225
4.60588663482572 -1.18259068862421 1.20281141891039 96 167 224
4.67105345339585 -0.891051101343528 1.27717157438524 104 167 222
4.71778575798677 -0.595994942448372 1.3610226955324 112 167 220
4.74589911754221 -0.298586663799557 1.45139431458188 120 167 217
5 0 8.07771276083169E-15 128 128 254
4.99013364214136 0.313952597646567 0.0936906572928626 135 128 252
4.96057350657239 0.626666167821521 0.184062276342339 143 128 250
4.91143625364344 0.936906572928623 0.267913397489499 151 128 248
4.84291580564316 1.24344943582427 0.342273552964345 159 128 246
4.75528258147577 1.54508497187474 0.404508497187474 167 128 244
4.64888242944126 1.84062276342339 0.45241352623301 174 128 243
4.5241352623301 2.12889645782536 0.484291580564316 182 128 242
4.38153340021932 2.40876837050858 0.499013364214136 189 128 242
4.22163962751008 2.67913397489498 0.496057350657239 196 128 242
4.04508497187474 2.93892626146237 0.475528258147577 202 128 242
3.85256621387895 3.18711994874345 0.438153340021932 208 128 243
3.64484313710706 3.42273552964344 0.385256621387895 214 128 245
3.42273552964344 3.64484313710706 0.318711994874345 220 128 246
3.18711994874345 3.85256621387895 0.240876837050858 225 128 248
2.93892626146237 4.04508497187474 0.154508497187474 230 128 251
2.67913397489498 4.22163962751008 0.0626666167821524 235 128 253
2.40876837050858 4.38153340021932 -0.0313952597646566 239 128 254
2.12889645782536 4.5241352623301 -0.124344943582427 242 128 251
1.84062276342339 4.64888242944126 -0.212889645782536 246 128 249
1.54508497187474 4.75528258147577 -0.293892626146236 248 128 247
1.24344943582427 4.84291580564316 -0.364484313710705 251 128 245
0.936906572928624 4.91143625364344 -0.422163962751007 252 128 244
0.626666167821522 4.96057350657239 -0.464888242944125 253 128 243
0.313952597646568 4.99013364214136 -0.491143625364344 254 128 242
3.06151588455594E-16 5 -0.5 255 128 242
-0.313952597646567 4.99013364214136 -0.491143625364344 254 128 242
-0.626666167821521 4.96057350657239 -0.464888242944125 253 128 243
-0.936906572928623 4.91143625364344 -0.422163962751007 252 128 244
-1.24344943582427 4.84291580564316 -0.364484313710705 251 128 245
-1.54508497187474 4.75528258147577 -0.293892626146237 248 128 247
-1.84062276342339 4.64888242944126 -0.212889645782536 246 128 249
-2.12889645782536 4.5241352623301 -0.124344943582427 242 128 251
-2.40876837050858 4.38153340021932 -0.0313952597646563 239 128 254
-2.67913397489498 4.22163962751007 0.0626666167821528 235 128 253
-2.93892626146237 4.04508497187474 0.154508497187474 230 128 251
-3.18711994874345 3.85256621387895 0.240876837050858 225 128 248
-3.42273552964344 3.64484313710706 0.318711994874345 220 128 246
-3.64484313710706 3.42273552964344 0.385256621387895 214 128 245
-3.85256621387895 3.18711994874345 0.438153340021932 208 128 243
-4.04508497187474 2.93892626146237 0.475528258147577 202 128 242
-4.22163962751007 2.67913397489498 0.496057350657239 196 128 242
-4.38153340021932 2.40876837050858 0.499013364214136 189 128 242
-4.5241352623301 2.12889645782536 0.484291580564316 182 128 242
-4.64888242944126 1.84062276342339 0.45241352623301 174 128 243
-4.75528258147577 1.54508497187474 0.404508497187474 167 128 244
-4.84291580564315 1.24344943582428 0.342273552964345 159 128 246
-4.91143625364344 0.936906572928623 0.267913397489499 151 128 248
-4.96057350657239 0.626666167821523 0.18406227634234 143 128 250
-4.99013364214136 0.313952597646568 0.0936906572928631 135 128 252
-5 6.12303176911189E-16 4.89842541528951E-16 128 128 255
-4.99013364214136 -0.313952597646567 -0.0936906572928622 120 128 252
-4.96057350657239 -0.626666167821521 -0.184062276342339 112 128 250
-4.91143625364344 -0.936906572928624 -0.267913397489498 104 128 248
-4.84291580564316 -1.24344943582427 -0.342273552964344 96 128 246
-4.75528258147577 -1.54508497187474 -0.404508497187473 88 128 244
-4.64888242944126 -1.84062276342339 -0.45241352623301 81 128 243
-4.5241352623301 -2.12889645782536 -0.484291580564315 73 128 242
-4.38153340021932 -2.40876837050858 -0.499013364214135 66 128 242
-4.22163962751008 -2.67913397489498 -0.496057350657239 59 128 242
-4.04508497187474 -2.93892626146236 -0.475528258147577 53 128 242
-3.85256621387895 -3.18711994874345 -0.438153340021931 47 128 243
-3.64484313710706 -3.42273552964344 -0.385256621387895 41 128 245
-3.42273552964344 -3.64484313710706 -0.318711994874345 35 128 246
-3.18711994874345 -3.85256621387895 -0.240876837050857 30 128 248
-2.93892626146237 -4.04508497187474 -0.154508497187474 25 128 251
-2.67913397489498 -4.22163962751008 -0.0626666167821517 20 128 253
-2.40876837050858 -4.38153340021932 0.0313952597646566 16 128 254
-2.12889645782536 -4.5241352623301 0.124344943582428 13 128 251
-1.84062276342339 -4.64888242944126 0.212889645782537 9 128 249
-1.54508497187474 -4.75528258147577 0.293892626146237 7 128 247
-1.24344943582427 -4.84291580564316 0.364484313710707 4 128 245
-0.936906572928623 -4.91143625364344 0.422163962751008 3 128 244
-0.626666167821523 -4.96057350657239 0.464888242944126 2 128 243
-0.313952597646566 -4.99013364214136 0.491143625364345 1 128 242
-9.18454765366783E-16 -5 0.5 1 128 242
0.313952597646564 -4.99013364214136 0.491143625364345 1 128 242
0.626666167821521 -4.96057350657239 0.464888242944126 2 128 243
0.936906572928621 -4.91143625364344 0.422163962751008 3 128 244
1.24344943582427 -4.84291580564316 0.364484313710706 4 128 245
1.54508497187474 -4.75528258147577 0.293892626146237 7 128 247
1.84062276342339 -4.64888242944126 0.212889645782537 9 128 249
2.12889645782536 -4.5241352623301 0.124344943582429 13 128 251
2.40876837050858 -4.38153340021932 0.0313952597646562 16 128 254
2.67913397489498 -4.22163962751007 -0.062666616782152 20 128 253
2.93892626146236 -4.04508497187474 -0.154508497187472 25 128 251
3.18711994874345 -3.85256621387895 -0.240876837050857 30 128 248
3.42273552964344 -3.64484313710706 -0.318711994874343 35 128 246
3.64484313710706 -3.42273552964344 -0.385256621387894 41 128 245
3.85256621387895 -3.18711994874345 -0.438153340021932 47 128 243
4.04508497187474 -2.93892626146237 -0.475528258147576 53 128 242
4.22163962751007 -2.67913397489499 -0.496057350657238 59 128 242
4.38153340021932 -2.40876837050858 -0.499013364214136 66 128 242
4.5241352623301 -2.12889645782536 -0.484291580564315 73 128 242
4.64888242944126 -1.84062276342339 -0.45241352623301 81 128 243
4.75528258147577 -1.54508497187474 -0.404508497187473 88 128 244
4.84291580564315 -1.24344943582428 -0.342273552964345 96 128 246
4.91143625364344 -0.936906572928623 -0.267913397489498 104 128 248
4.96057350657239 -0.626666167821523 -0.18406227634234 112 128 250
4.99013364214136 -0.313952597646566 -0.0936906572928618 120 128 252
4.75528258147577 0 -1.54508497187473 128 88 215
4.74589911754221 0.298586663799558 -1.45139431458187 135 88 217
4.71778575798677 0.59599494244837 -1.3610226955324 143 88 220
4.67105345339585 0.891051101343527 -1.27717157438524 151 88 222
4.60588663482572 1.18259068862421 -1.20281141891039 159 88 224
4.52254248593737 1.46946313073118 -1.14057647468726 167 88 225
4.42134992801015 1.75053627319501 -1.09267144564173 174 88 227
4.30270832183972 2.02470084873248 -1.06079339131042 182 88 227
4.16708589164344 2.29087485501784 -1.0460716076606 189 88 228
4.0150178771933 2.54800782485161 -1.0490276212175 196 88 228
3.84710442146907 2.79508497187474 -1.06955671372716 202 88 227
3.66400820216812 3.03113119546673 -1.10693163185281 208 88 226
3.46645181641934 3.25521492902234 -1.15982835048684 214 88 225
3.25521492902234 3.46645181641934 -1.22637297700039 220 88 223
3.03113119546673 3.66400820216812 -1.30420813482388 225 88 221
2.79508497187474 3.84710442146907 -1.39057647468726 230 88 219
2.54800782485161 4.0150178771933 -1.48241835509258 235 88 217
2.29087485501784 4.16708589164344 -1.57648023163939 239 88 214
2.02470084873248 4.30270832183972 -1.66942991545716 242 88 212
1.75053627319501 4.42134992801015 -1.75797461765727 246 88 210
1.46946313073118 4.52254248593737 -1.83897759802097 248 88 208
1.18259068862421 4.60588663482572 -1.90956928558544 251 88 206
0.891051101343528 4.67105345339585 -1.96724893462574 252 88 204
0.595994942448371 4.71778575798677 -2.00997321481886 253 88 203
0.298586663799559 4.74589911754221 -2.03622859723908 254 88 203
2.91167463174805E-16 4.75528258147577 -2.04508497187474 255 88 202
-0.298586663799558 4.74589911754221 -2.03622859723908 254 88 203
-0.59599494244837 4.71778575798677 -2.00997321481886 253 88 203
-0.891051101343527 4.67105345339585 -1.96724893462574 252 88 204
-1.18259068862421 4.60588663482572 -1.90956928558544 251 88 206
-1.46946313073118 4.52254248593737 -1.83897759802097 248 88 208
-1.75053627319501 4.42134992801015 -1.75797461765727 246 88 210
-2.02470084873248 4.30270832183972 -1.66942991545716 242 88 212
-2.29087485501784 4.16708589164344 -1.57648023163939 239 88 214
-2.54800782485161 4.0150178771933 -1.48241835509258 235 88 217
-2.79508497187474 3.84710442146907 -1.39057647468726 230 88 219
-3.03113119546673 3.66400820216812 -1.30420813482388 225 88 221
-3.25521492902234 3.46645181641934 -1.22637297700039 220 88 223
-3.46645181641934 3.25521492902234 -1.15982835048684 214 88 225
-3.66400820216812 3.03113119546673 -1.10693163185281 208 88 226
-3.84710442146907 2.79508497187474 -1.06955671372716 202 88 227
-4.0150178771933 2.54800782485161 -1.0490276212175 196 88 228
-4.16708589164344 2.29087485501784 -1.0460716076606 189 88 228
-4.30270832183972 2.02470084873248 -1.06079339131042 182 88 227
-4.42134992801015 1.75053627319501 -1.09267144564173 174 88 227
-4.52254248593737 1.46946313073118 -1.14057647468726 167 88 225
-4.60588663482572 1.18259068862421 -1.20281141891039 159 88 224
-4.67105345339585 0.891051101343527 -1.27717157438524 151 88 222
-4.71778575798677 0.595994942448371 -1.3610226955324 143 88 220
-4.74589911754221 0.298586663799559 -1.45139431458187 135 88 217
-4.75528258147577 5.8233492634961E-16 -1.54508497187474 128 88 215
-4.74589911754221 -0.298586663799558 -1.6387756291676 120 88 213
-4.71778575798677 -0.59599494244837 -1.72914724821708 112 88 210
-4.67105345339585 -0.891051101343528 -1.81299836936424 104 88 208
-4.60588663482572 -1.18259068862421 -1.88735852483908 96 88 206
-4.52254248593737 -1.46946313073118 -1.94959346906221 88 88 205
-4.42134992801015 -1.75053627319501 -1.99749849810775 81 88 204
-4.30270832183972 -2.02470084873248 -2.02937655243905 73 88 203
-4.16708589164344 -2.29087485501784 -2.04409833608887 66 88 202
-4.0150178771933 -2.54800782485161 -2.04114232253198 59 88 202
-3.84710442146907 -2.79508497187474 -2.02061323002231 53 88 203
-3.66400820216812 -3.03113119546673 -1.98323831189667 47 88 204
-3.46645181641934 -3.25521492902234 -1.93034159326263 41 88 205
-3.25521492902234 -3.46645181641934 -1.86379696674908 35 88 207
-3.03113119546673 -3.66400820216812 -1.78596180892559 30 88 209
-2.79508497187474 -3.84710442146907 -1.69959346906221 25 88 211
-2.54800782485161 -4.0150178771933 -1.60775158865689 20 88 214
-2.29087485501784 -4.16708589164344 -1.51368971211008 16 88 216
-2.02470084873248 -4.30270832183972 -1.42074002829231 13 88 218
-1.75053627319501 -4.42134992801015 -1.3321953260922 9 88 221
-1.46946313073118 -4.52254248593737 -1.2511923457285 7 88 223
-1.18259068862421 -4.60588663482572 -1.18060065816403 4 88 224
-0.891051101343528 -4.67105345339585 -1.12292100912373 3 88 226
-0.595994942448372 -4.71778575798677 -1.08019672893061 2 88 227
-0.298586663799557 -4.74589911754221 -1.05394134651039 1 88 228
-8.73502389524415E-16 -4.75528258147577 -1.04508497187474 1 88 228
0.298586663799555 -4.74589911754221 -1.05394134651039 1 88 228
0.59599494244837 -4.71778575798677 -1.08019672893061 2 88 227
0.891051101343526 -4.67105345339585 -1.12292100912373 3 88 226
1.18259068862421 -4.60588663482572 -1.18060065816403 4 88 224
1.46946313073118 -4.52254248593737 -1.2511923457285 7 88 223
1.75053627319501 -4.42134992801015 -1.3321953260922 9 88 221
2.02470084873248 -4.30270832183973 -1.42074002829231 13 88 218
2.29087485501784 -4.16708589164344 -1.51368971211008 16 88 216
2.54800782485161 -4.0150178771933 -1.60775158865689 20 88 214
2.79508497187474 -3.84710442146907 -1.69959346906221 25 88 211
3.03113119546673 -3.66400820216812 -1.78596180892559 30 88 209
3.25521492902234 -3.46645181641934 -1.86379696674908 35 88 207
3.46645181641934 -3.25521492902234 -1.93034159326263 41 88 205
3.66400820216812 -3.03113119546673 -1.98323831189667 47 88 204
3.84710442146907 -2.79508497187474 -2.02061323002231 53 88 203
4.0150178771933 -2.54800782485161 -2.04114232253198 59 88 202
4.16708589164344 -2.29087485501784 -2.04409833608887 66 88 202
4.30270832183972 -2.02470084873248 -2.02937655243905 73 88 203
4.42134992801015 -1.75053627319501 -1.99749849810775 81 88 204
4.52254248593737 -1.46946313073118 -1.94959346906221 88 88 205
4.60588663482572 -1.18259068862421 -1.88735852483908 96 88 206
4.67105345339585 -0.891051101343528 -1.81299836936424 104 88 208
4.71778575798677 -0.595994942448372 -1.72914724821708 112 88 210
4.74589911754221 -0.298586663799557 -1.6387756291676 120 88 213
4.04508497187474 0 -2.93892626146236 128 53 180
4.03710292069451 0.253992986924233 -2.8452356041695 135 53 182
4.01318826866319 0.506983579567434 -2.75486398512003 143 53 184
3.97343539598677 0.757973339640847 -2.67101286397287 151 53 186
3.91800118909235 1.00597172522778 -2.59665270849802 159 53 188
3.84710442146907 1.25 -2.53441776427489 167 53 190
3.76102489026907 1.4890950958429 -2.48651273522936 174 53 191
3.66010231207601 1.72231341364535 -2.45463468089805 182 53 192
3.54473498219888 1.94873454725429 -2.43991289724823 189 53 192
3.41537820278237 2.16746491589735 -2.44286891080513 196 53 192
3.27254248593737 2.37764129073788 -2.46339800331479 202 53 192
3.11679153898282 2.57843420164486 -2.50077292144043 208 53 191
2.94874003975051 2.76905121073248 -2.55366964007447 214 53 189
2.76905121073248 2.94874003975051 -2.62021426658802 220 53 188
2.57843420164486 3.11679153898282 -2.69804942441151 225 53 186
2.37764129073788 3.27254248593737 -2.78441776427489 230 53 183
2.16746491589734 3.41537820278237 -2.87625964468021 235 53 181
1.94873454725429 3.54473498219888 -2.97032152122702 239 53 179
1.72231341364535 3.66010231207601 -3.06327120504479 242 53 176
1.4890950958429 3.76102489026907 -3.1518159072449 246 53 174
1.25 3.84710442146907 -3.2328188876086 248 53 172
1.00597172522778 3.91800118909235 -3.30341057517307 251 53 170
0.757973339640848 3.97343539598677 -3.36109022421337 252 53 169
0.506983579567434 4.01318826866319 -3.40381450440649 253 53 168
0.253992986924233 4.03710292069451 -3.43006988682671 254 53 167
2.47681837915461E-16 4.04508497187474 -3.43892626146237 255 53 167
-0.253992986924233 4.03710292069451 -3.43006988682671 254 53 167
-0.506983579567433 4.01318826866319 -3.40381450440649 253 53 168
-0.757973339640847 3.97343539598677 -3.36109022421337 252 53 169
-1.00597172522778 3.91800118909235 -3.30341057517307 251 53 170
-1.25 3.84710442146907 -3.2328188876086 248 53 172
-1.4890950958429 3.76102489026907 -3.1518159072449 246 53 174
-1.72231341364535 3.66010231207601 -3.06327120504479 242 53 176
-1.94873454725429 3.54473498219888 -2.97032152122702 239 53 179
-2.16746491589735 3.41537820278237 -2.87625964468021 235 53 181
-2.37764129073788 3.27254248593737 -2.78441776427489 230 53 183
-2.57843420164486 3.11679153898282 -2.69804942441151 225 53 186
-2.76905121073248 2.94874003975051 -2.62021426658802 220 53 188
-2.94874003975051 2.76905121073248 -2.55366964007447 214 53 189
-3.11679153898282 2.57843420164486 -2.50077292144043 208 53 191
-3.27254248593737 2.37764129073788 -2.46339800331479 202 53 192
-3.41537820278237 2.16746491589735 -2.44286891080513 196 53 192
-3.54473498219888 1.94873454725429 -2.43991289724823 189 53 192
-3.66010231207601 1.72231341364535 -2.45463468089805 182 53 192
-3.76102489026907 1.4890950958429 -2.48651273522936 174 53 191
-3.84710442146907 1.25 -2.53441776427489 167 53 190
-3.91800118909235 1.00597172522778 -2.59665270849802 159 53 188
-3.97343539598677 0.757973339640847 -2.67101286397287 151 53 186
-4.01318826866319 0.506983579567435 -2.75486398512003 143 53 184
-4.03710292069451 0.253992986924234 -2.8452356041695 135 53 182
-4.04508497187474 4.95363675830922E-16 -2.93892626146237 128 53 180
-4.03710292069451 -0.253992986924233 -3.03261691875523 120 53 177
-4.01318826866319 -0.506983579567434 -3.1229885378047 112 53 175
-3.97343539598677 -0.757973339640848 -3.20683965895186 104 53 173
-3.91800118909235 -1.00597172522778 -3.28119981442671 96 53 171
-3.84710442146907 -1.25 -3.34343475864984 88 53 169
-3.76102489026907 -1.4890950958429 -3.39133978769538 81 53 168
-3.66010231207601 -1.72231341364535 -3.42321784202668 73 53 167
-3.54473498219888 -1.94873454725429 -3.4379396256765 66 53 167
-3.41537820278237 -2.16746491589734 -3.4349836121196 59 53 167
-3.27254248593737 -2.37764129073788 -3.41445451960994 53 53 167
-3.11679153898282 -2.57843420164486 -3.3770796014843 47 53 168
-2.94874003975051 -2.76905121073248 -3.32418288285026 41 53 170
-2.76905121073248 -2.94874003975051 -3.25763825633671 35 53 171
-2.57843420164486 -3.11679153898282 -3.17980309851322 30 53 173
-2.37764129073788 -3.27254248593737 -3.09343475864984 25 53 176
-2.16746491589734 -3.41537820278237 -3.00159287824452 20 53 178
-1.94873454725429 -3.54473498219888 -2.90753100169771 16 53 180
-1.72231341364535 -3.66010231207601 -2.81458131787994 13 53 183
-1.4890950958429 -3.76102489026907 -2.72603661567983 9 53 185
-1.25 -3.84710442146907 -2.64503363531613 7 53 187
-1.00597172522778 -3.91800118909235 -2.57444194775166 4 53 189
-0.757973339640847 -3.97343539598677 -2.51676229871136 3 53 190
-0.506983579567435 -4.01318826866319 -2.47403801851824 2 53 191
-0.253992986924232 -4.03710292069451 -2.44778263609802 1 53 192
-7.43045513746382E-16 -4.04508497187474 -2.43892626146237 1 53 192
0.253992986924231 -4.03710292069451 -2.44778263609802 1 53 192
0.506983579567433 -4.01318826866319 -2.47403801851824 2 53 191
0.757973339640846 -3.97343539598677 -2.51676229871136 3 53 190
1.00597172522778 -3.91800118909235 -2.57444194775166 4 53 189
1.25 -3.84710442146907 -2.64503363531613 7 53 187
1.4890950958429 -3.76102489026907 -2.72603661567983 9 53 185
1.72231341364534 -3.66010231207601 -2.81458131787994 13 53 183
1.94873454725429 -3.54473498219888 -2.90753100169771 16 53 180
2.16746491589735 -3.41537820278237 -3.00159287824452 20 53 178
2.37764129073788 -3.27254248593737 -3.09343475864984 25 53 176
2.57843420164486 -3.11679153898282 -3.17980309851322 30 53 173
2.76905121073248 -2.94874003975051 -3.25763825633671 35 53 171
2.94874003975051 -2.76905121073248 -3.32418288285026 41 53 170
3.11679153898282 -2.57843420164486 -3.3770796014843 47 53 168
3.27254248593737 -2.37764129073788 -3.41445451960994 53 53 167
3.41537820278237 -2.16746491589735 -3.4349836121196 59 53 167
3.54473498219887 -1.94873454725429 -3.4379396256765 66 53 167
3.66010231207601 -1.72231341364535 -3.42321784202668 73 53 167
3.76102489026907 -1.4890950958429 -3.39133978769538 81 53 168
3.84710442146907 -1.25 -3.34343475864984 88 53 169
3.91800118909235 -1.00597172522778 -3.28119981442671 96 53 171
3.97343539598677 -0.757973339640847 -3.20683965895186 104 53 173
4.01318826866319 -0.506983579567435 -3.12298853780471 112 53 175
4.03710292069451 -0.253992986924232 -3.03261691875523 120 53 177
2.93892626146238 0 -4.04508497187473 128 25 151
2.93312696181922 0.184536706815565 -3.95139431458187 135 25 154
2.91575195007601 0.36834513155613 -3.8610226955324 143 25 156
2.88686979746621 0.550699866343327 -3.77717157438524 151 25 158
2.84659448865117 0.730881240348904 -3.70281141891039 159 25 160
2.79508497187474 0.908178160006701 -3.64057647468726 167 25 162
2.73254453166718 1.08189091537409 -3.59267144564173 174 25 163
2.65921998657397 1.25133394156743 -3.56079339131042 182 25 164
2.57540071507581 1.41583852437351 -3.5460716076606 189 25 164
2.48141751354391 1.57475543935898 -3.5490276212175 196 25 164
2.37764129073788 1.72745751406263 -3.56955671372716 202 25 163
2.26448160399829 1.87334210315854 -3.6069316318528 208 25 163
2.14238504291096 2.01183346682188 -3.65982835048684 214 25 161
2.01183346682188 2.14238504291096 -3.72637297700039 220 25 159
1.87334210315854 2.26448160399829 -3.80420813482388 225 25 157
1.72745751406263 2.37764129073788 -3.89057647468726 230 25 155
1.57475543935898 2.48141751354391 -3.98241835509258 235 25 153
1.41583852437351 2.57540071507581 -4.07648023163939 239 25 151
1.25133394156743 2.65921998657397 -4.16942991545716 242 25 148
1.08189091537409 2.73254453166718 -4.25797461765727 246 25 146
0.908178160006701 2.79508497187474 -4.33897759802097 248 25 144
0.730881240348904 2.84659448865117 -4.40956928558544 251 25 142
0.550699866343328 2.88686979746621 -4.46724893462574 252 25 141
0.368345131556131 2.91575195007601 -4.50997321481886 253 25 139
